0.20680855 -0.35826609 -0.59805667
0.20911713 -0.30393863 -0.54720592
0.21746232 0.35059649 -0.50683016
0.11627308 -0.35661697 -0.35889521
-0.49052528 -0.21847437 -0.47731745
0.08898325 -0.31582865 -0.54049343
-0.46827766 -0.12353054 -0.56421858
-0.12285851 0.13942397 -0.43138090
-0.52923930 0.23019022 -1.05004239
-0.50759679 -0.21907362 -0.66707879
-0.41909918 0.14125893 -0.04465032
-0.45599473 0.23435514 0.21644196
-0.18626289 -0.18155086 -0.43550354
-0.47693142 -0.15724947 -0.28828335
-0.15418768 -0.10271039 -0.42841899
-0.46786612 -0.11672401 -0.48806185
-0.47938678 0.24111879 -0.43065143
-0.46254572 0.02103309 0.26861522
-0.14570536 0.24924704 -0.54049343
0.05224507 -0.11719270 -0.43899336
-0.52007586 -0.03297691 0.30891857
-0.19923277 -0.32754755 -0.45689222
-0.42596957 -0.19651639 0.09690178
-0.46646658 0.13236733 -0.27402914
0.17403702 -0.16401446 -0.53545290
-0.47363061 0.05437714 0.15273902
-0.45951614 0.22353713 0.21112660
-0.45834535 -0.16874015 -0.46433330
0.21369331 -0.39269134 -0.84815413
-0.42994970 0.12632406 0.16523144
-0.01830185 0.18876268 -0.54049343
-0.41877741 0.08577674 0.06057067
-0.48444963 -0.22161475 -0.16619655
-0.42284206 -0.16126838 0.04000901
0.11248767 0.31921270 -0.45817527
-0.53413820 -0.24259555 -0.97394902
-0.30025348 -0.26237738 -0.53605646
0.09071247 0.25503486 -0.45198926
-0.46916348 -0.24245027 -0.67659354
-0.44834709 -0.23772950 -0.55295569
0.15597387 -0.39164218 -0.56865847
-0.12853378 -0.30148336 -0.53929299
-0.46416947 0.04609324 0.02746497
-0.45458111 0.03436838 -0.46400398
-0.48257723 -0.15259828 0.31293949
-0.33528665 0.00305772 -0.54049343
-0.40136230 -0.23495564 -0.53611577
-0.08783200 -0.31974208 -0.16504292
0.14010307 0.37189433 -0.34433439
-0.46994820 -0.20793578 -0.50101829
0.05422482 -0.28114063 -0.54049343
-0.46254572 0.02103309 0.26861522
-0.35601926 -0.08203211 -0.54049343
-0.35836014 -0.25883719 -0.18965508
-0.46835732 0.21677773 -0.23199609
-0.12692182 -0.37466538 -0.54458177
-0.47013673 -0.16936049 0.08597611
-0.56610352 -0.23654850 -1.02888417
-0.26817194 -0.31560424 -0.56295621
-0.14470114 0.35620806 -0.55410606
-0.55554336 0.26538268 -1.08044350
-0.12692182 -0.37466538 -0.54458177
-0.46352082 -0.03834747 -0.28553554
-0.35134843 -0.26024032 -0.53616709
0.20575568 0.07760332 -0.54029685
-0.34095713 -0.22287564 -0.53946710
0.00848712 0.32738051 -0.53773010
0.02289284 -0.40047985 -0.54818279
-0.31049180 0.28205553 -0.51449603
-0.52576739 0.10612599 0.32498643
-0.12565278 0.35172161 -0.51707929
-0.44216913 0.17654353 -0.40583673
-0.10800642 -0.33103433 -0.53665835
-0.21913521 -0.33087751 -0.54357195
-0.43343639 0.19144312 -0.21473518
0.16238600 0.19949414 -0.53787917
-0.51094890 -0.20795566 -0.87330085
-0.57997346 0.26826820 -1.13347661
-0.35460824 -0.24743740 -0.45353025
-0.07979991 0.14338826 -0.43177411
-0.47499934 -0.13575962 0.13925323
-0.46539477 0.03532099 -0.54288620
-0.04017058 -0.13740104 -0.54049343
-0.48702615 -0.20640124 -0.63520747
-0.07533139 0.33461908 -0.19867481
0.21314651 -0.37711853 -0.69012254
-0.42003471 -0.01430898 0.03119473
-0.45143843 0.08556361 -0.31804520
-0.46582788 -0.22726648 0.22033200
-0.48416978 0.11813691 0.20887300
0.15583761 0.04304587 -0.45390794
0.15578638 -0.37804532 -0.60908371
0.05217363 -0.20279559 -0.44370499
0.17502677 -0.36637488 -0.84836841
-0.48910564 -0.15051302 0.28751567
0.16845815 0.34164193 -0.60141325
-0.46961033 -0.22759755 0.05235319
-0.48668435 -0.19808289 -0.41863438
0.20444313 0.33642593 -0.49469379
-0.30422166 0.03780636 -0.54049343
0.22639461 0.33860791 -0.55912632
0.21883973 0.23185982 -0.55320221
-0.48444963 -0.22161475 -0.16619655
-0.46996981 0.25399873 -0.54468513
-0.14792681 -0.24932063 -0.54049343
0.21137016 0.16359389 -0.56628555
-0.42404538 -0.17429560 0.07247377
-0.51311392 0.22107501 -0.98629314
-0.26962420 0.21905532 -0.44335935
-0.04207968 0.20751293 -0.43849745
-0.03021502 -0.38588876 -0.54993993
-0.49052110 0.15973748 0.33294472
-0.51872277 -0.08661201 0.32317516
-0.46316138 -0.26594478 -0.03561608
-0.49777582 -0.19819732 0.24270853
-0.04676596 -0.25205663 -0.54049343
0.20843908 -0.11698687 -0.49769667
-0.46780118 -0.03496344 -0.07374176
-0.45213598 0.19623373 0.23968300
-0.44508451 0.24435273 -0.11052237
-0.10504391 0.36603066 -0.56428903
0.07844095 -0.30521885 -0.54049343
-0.15253097 0.09163748 -0.42846546
0.06083760 -0.06229408 -0.54049343
-0.18506213 -0.35617220 -0.51280582
-0.05102061 0.10909698 -0.43050954
-0.46395651 0.11456904 -0.55225223
-0.45944893 -0.00307773 0.25925425
-0.51654321 -0.09786116 0.29704103
-0.52360898 -0.21623176 -0.78996724
0.21111201 0.24238972 -0.47846130
-0.33856806 0.07226901 -0.54049343
-0.49300775 0.03462439 0.33992693
-0.41776553 0.11819693 0.01940789
-0.26573852 0.08128784 -0.54049343
-0.14603177 -0.36529368 -0.56628555
-0.42166477 0.07292797 -0.30224630
0.00283937 0.31839982 -0.53867406
-0.35355842 0.23098794 -0.45092514
0.09004810 -0.30595687 -0.45478544
-0.45651686 -0.26341939 0.20517275
-0.49428675 -0.20694900 -0.57600802
-0.42201155 -0.21521714 -0.53866851
-0.47548082 -0.21550885 -0.73146564
-0.35654229 0.25347519 -0.51168549
0.13150088 -0.06142347 -0.44960928
0.12278927 0.34391978 -0.53614461
-0.53268582 0.04177416 0.35398158
-0.48442245 0.17078963 0.21379456
0.19914715 -0.36370102 -1.01205957
-0.47540587 0.20890798 -0.49196151
0.17729619 -0.36836800 -0.39818147
-0.19225140 -0.25348049 -0.44255939
0.21812545 0.19249652 -0.54215813
-0.42647028 0.06500011 -0.53744775
-0.23905000 -0.19461177 -0.43917674
-0.49047640 0.01272786 0.22528771
-0.25871825 0.26614404 -0.44793990
-0.42490420 0.05123454 -0.53769833
0.20888950 -0.35830405 -0.47659901
0.21890782 0.23727368 -0.50028962
-0.15694205 0.34003904 -0.47789928
-0.48008260 -0.30930647 0.09748484
0.19100671 0.20720406 -0.46156320
-0.41660857 0.03613773 -0.32970828
-0.15981765 -0.09914432 -0.42840350
0.19935556 -0.10916883 -0.49543598
-0.31029764 -0.11037687 -0.43854508
0.19999556 0.14952801 -0.47066382
-0.44977292 0.27293092 0.00428965
-0.44688848 -0.15018889 0.21359470
0.14653236 0.25007465 -0.45672742
-0.37695098 -0.26180351 -0.51560354
0.09353845 0.35589993 -0.30467305
0.24419294 0.33588037 -1.04828238
0.15426765 -0.24195495 -0.53801399
-0.41187453 0.22278795 -0.53385454
-0.46482667 -0.24454133 -0.63750052
-0.45906594 0.15809271 -0.31125647
-0.02402429 0.37987384 -0.54287773
-0.46293482 0.22998758 -0.69619524
-0.04178000 0.09841603 -0.43048164
-0.44057405 -0.19067587 0.18730971
0.20521191 -0.27479610 -0.49988976
-0.43458036 0.27890900 -0.09383166
-0.42273149 0.12934648 0.12171171
-0.41777986 0.16002777 0.06923882
-0.36516628 0.21394618 -0.45025840
-0.47689432 0.28683215 0.01939015
-0.46223131 0.15464094 0.02115815
-0.46860227 -0.06927237 -0.08032537
-0.04988759 0.28115866 -0.44682154
-0.46104282 0.27431065 0.02808671
-0.51373875 0.22019713 -0.77648467
0.21769001 0.16849914 -0.50289553
-0.43343332 -0.24774680 -0.08643359
-0.17777690 -0.35679311 -0.49783430
0.17722523 0.33691978 -0.58505666
-0.41653985 0.17779776 0.03203543
-0.28863892 -0.31698847 -0.19700329
-0.47705203 0.10953727 0.17685053
-0.44612804 -0.05019332 -0.28328535
-0.54634464 0.23944890 -1.09634316
-0.50422359 -0.24346831 -0.63181329
-0.46561274 -0.02459525 0.03978311
-0.08539319 0.36118475 -0.51914483
-0.25162339 0.14403142 -0.54049343
0.19093505 0.37097064 -0.42281589
-0.57090169 -0.23666140 -1.05198085
-0.28321186 -0.02600769 -0.54049343
0.20981859 0.24250033 -0.56628555
-0.44833520 -0.28319469 0.05207102
-0.41701502 0.23482586 0.07893340
-0.47692212 0.19150010 -0.35588962
0.21706510 0.34880859 -0.56607956
-0.47056153 -0.14359024 -0.10848938
-0.48162034 -0.17325734 -0.27903792
0.11439937 -0.35658291 -0.23446457
-0.49830356 0.24659078 -0.67921990
-0.20822224 -0.33126917 -0.52351600
-0.46761686 -0.02375575 0.08787777
-0.19573405 -0.30015609 -0.53668410
-0.04410104 0.36815014 -0.49590877
-0.28069490 0.15634064 -0.54049343
-0.21423411 0.15351894 -0.43526244
0.21502465 0.02161536 -0.52179855
-0.52196974 -0.21167810 -0.77924317
-0.49967867 0.08176190 0.32608649
0.22077224 0.33835617 -0.55453128
-0.27484450 -0.30940783 -0.19867480
-0.24602602 0.27781653 -0.44938138
-0.48509055 -0.27003053 -0.10217208
-0.48385614 -0.20587690 -0.78624481
0.14955652 0.33742321 -0.36091459
-0.44264925 -0.20224832 -0.19184192
0.20028399 -0.18048476 -0.48255900
-0.48372820 -0.22397679 0.20675603
-0.15306932 -0.03151659 -0.42486301
-0.40455520 0.07281566 -0.25860494
-0.43790242 0.16340096 -0.36934236
0.20808020 -0.36108217 -0.53132796
-0.50240940 -0.10936795 0.25711396
-0.47580320 0.01764862 -0.50558615
0.07514274 0.07165755 -0.54049343
-0.42386925 -0.09093961 0.09435580
-0.47129488 0.24708666 -0.66217774
-0.41987136 0.17709583 -0.08253873
-0.45244130 0.12849550 -0.25084013
-0.46951905 -0.19193140 -0.53533453
-0.20891811 0.06305294 -0.54049343
-0.56702977 0.28011811 -1.13041747
-0.42817357 0.22388808 -0.14410125
-0.50874215 0.09530596 0.32114097
-0.49960530 0.10964163 0.35809061
-0.46385729 0.11892525 -0.18437685
-0.46963242 -0.18596821 0.07334895
-0.21810572 0.30222568 -0.45482734
-0.47090966 -0.23455834 0.18860087
-0.47664094 0.03452116 0.16803280
-0.06483076 -0.25695118 -0.44200471
0.19922605 -0.09496233 -0.50282925
0.11745215 0.31815919 -0.53894913
-0.46056449 -0.20199475 -0.18126632
-0.38467866 0.29546577 -0.17645922
0.21515594 0.26362464 -0.50370944
-0.05874632 -0.39032364 -0.53510791
-0.00936639 -0.26463652 -0.44475946
0.21285906 0.10649061 -0.49769667
-0.00982668 -0.39101332 -0.50423354
-0.50164622 0.20915860 -0.77342528
-0.14361200 0.34558201 -0.48720637
-0.47456917 0.08566912 -0.52119809
-0.45573390 -0.24963990 -0.09356928
-0.18334806 -0.24858968 -0.54049343
-0.44910398 0.25448108 -0.52557200
-0.46767092 -0.09160016 -0.03685016
-0.24643356 0.30424100 -0.52461869
-0.42173982 0.07084957 -0.08086181
-0.54590225 0.22409657 -1.00733149
-0.02329232 -0.13866602 -0.43297917
-0.43578312 -0.15777557 0.16851535
-0.46801803 -0.30803519 -0.04528148
0.19821267 -0.00686387 -0.48619434
0.18560331 -0.39218137 -0.92913693
-0.46192816 0.18096244 0.04155050
-0.47344974 0.14737344 -0.53006583
-0.42514485 -0.21769249 -0.03309641
0.20272847 0.35807967 -0.52570289
-0.17293139 0.24789530 -0.54049343
0.20100355 -0.18428776 -0.50887829
-0.39858600 -0.09571102 -0.44894177
0.13300247 -0.12225631 -0.45103958
-0.42649743 -0.16988914 -0.14895615
0.11415572 -0.38983378 -0.23637046
-0.46821418 -0.15451251 -0.01274596
-0.47197229 0.20953900 -0.21887146
-0.42455676 -0.03873014 -0.11753085
-0.46254572 0.02103309 0.26861522
-0.46658128 -0.01376248 0.07448165
-0.49284026 -0.18837921 0.22079965
0.15478344 -0.16094859 -0.45545378
0.05563050 -0.35039690 -0.19867481
0.05579242 0.23751165 -0.54049343
-0.08665530 -0.02237182 -0.54049343
-0.46393687 0.22180080 -0.10898359
-0.44021276 -0.22874379 -0.21117693
-0.12934373 0.29220429 -0.17238615
-0.49248675 0.24100274 -0.82772905
-0.04459998 0.21069561 -0.54049343
-0.41904536 0.09309489 0.07006759
-0.46684283 -0.09357873 -0.00067128
-0.42029333 0.18427138 -0.14046852
-0.34207898 0.06248592 -0.44030008
0.03011860 0.17319652 -0.44045499
-0.07434112 0.02995423 -0.54049343
-0.47494274 0.12713867 0.16794357
-0.46814314 -0.08454408 -0.17540826
-0.11094521 0.31416011 -0.53652287
0.16436569 0.11242756 -0.53700960
0.09923026 -0.34656012 -0.53743464
0.20028295 -0.22399981 -0.51093799
-0.46989280 -0.21252580 -0.51499474
-0.47348633 0.14535651 -0.52250558
0.16798627 0.25968128 -0.45865235
-0.35608897 -0.27060634 -0.50714308
-0.44211838 0.17178842 -0.21659431
0.13301912 0.33427751 -0.16504292
-0.37709257 -0.15378894 -0.54049343
-0.40107587 -0.00095036 -0.26914576
-0.45062065 0.05957220 -0.32531565
-0.21455353 0.11397566 -0.43235818
-0.48463690 -0.24041398 -0.11529250
-0.07054561 0.02826277 -0.42600253
0.21777160 0.33618483 -0.55423516
0.11562828 0.34217694 -0.41161302
0.20567344 -0.39254639 -0.75236589
0.18963668 0.35045642 -0.86159283
0.11135976 -0.23377556 -0.54049343
-0.40196472 -0.21663442 -0.45339876
-0.42680669 -0.23237860 -0.06848231
-0.47743493 0.22138131 -0.80240601
-0.06737655 0.33332500 -0.19867481
-0.06139487 -0.15491134 -0.43202093
-0.15615761 0.33110264 -0.16504292
-0.02135489 -0.34228495 -0.45451954
-0.42440641 -0.24814749 0.01984726
0.03021089 0.00629410 -0.54049343
0.18899135 0.10177100 -0.53138930
-0.45649716 0.03597139 -0.52726960
0.00697060 -0.39044380 -0.54911393
0.23883320 -0.36150765 -1.08884633
0.07372701 0.37572765 -0.48132011
0.15832818 0.19674695 -0.45610273
-0.44027445 0.27714908 0.06582297
-0.20689952 -0.22547801 -0.54049343
-0.08051220 0.34453583 -0.45974484
0.14605968 -0.39403272 -0.52100921
-0.29240832 0.28409368 -0.16504291
-0.09403635 -0.38300017 -0.54623163
-0.46706969 -0.10840028 0.00779291
-0.45434430 -0.30269042 0.12975633
-0.50365072 0.23795162 -0.70344734
0.20714968 -0.35827288 -0.47285417
0.00796447 0.19796003 -0.54049343
-0.26331908 0.11389429 -0.43533576
-0.44903925 -0.05724936 -0.53476554
-0.46962768 -0.19262403 -0.42520189
-0.46373102 0.19708480 -0.16290167
-0.43956551 0.28268322 -0.13003285
-0.47258890 -0.15390176 -0.26939732
0.16505679 -0.38872054 -0.54160583
0.06672020 0.34928787 -0.53573030
-0.49596819 -0.20261873 0.23081776
-0.01114984 0.38135168 -0.51563901
-0.43044561 -0.21738462 -0.14351119
-0.20652279 -0.33691373 -0.56628555
-0.28375551 -0.25949514 -0.44739249
-0.47138163 -0.18545760 -0.11467454
-0.43352503 0.16472924 0.18494865
-0.16673669 -0.21693476 -0.43831366
-0.46326786 0.11335190 0.04606782
0.22638537 0.34951389 -0.76960534
-0.46241120 0.19971801 -0.50704664
-0.19796053 -0.32843027 -0.16504291
0.14365150 0.38113907 -0.17424800
-0.46707419 -0.02095450 -0.17388617
-0.05742021 -0.16844922 -0.54049343
0.05183415 0.20316695 -0.54049343
0.04794712 0.25722298 -0.44874665
-0.11368450 -0.36815935 -0.47441351
-0.43400985 0.27289420 0.01813425
-0.45559067 0.05447377 -0.52800018
-0.50209355 -0.24405459 0.24345973
-0.45899794 -0.25163800 0.18424204
-0.07265565 -0.38093734 -0.50020880
-0.42725417 -0.18767497 -0.12379253
-0.44568628 -0.28558290 -0.02918811
-0.46843311 -0.17703912 0.04197325
-0.19036929 -0.35407558 -0.50607961
0.17142494 0.35685286 -0.64972234
-0.44403803 -0.30401766 0.09494947
0.19347091 0.34200630 -0.89331692
0.18639873 0.27670565 -0.46100190
-0.40862545 -0.14715034 -0.45178711
-0.46360314 0.13404146 -0.54547203
0.18938345 0.36234504 -0.85768014
0.20978774 0.33632973 -0.69684821
-0.32550505 0.21133280 -0.53968185
0.26243141 0.35837603 -1.13507044
-0.44382024 -0.29729047 -0.01773612
-0.09997160 -0.13781510 -0.43017426
0.06684557 -0.18318440 -0.44396657
-0.22016028 -0.31722194 -0.19867480
-0.46202335 0.17004779 0.00661956
-0.46936193 0.24760416 0.14779314
0.17322695 -0.20965105 -0.45927432
-0.46415666 0.04752637 -0.48167047
-0.16538076 0.07839829 -0.42801765
-0.41632420 -0.01425799 -0.45184517
0.20153384 -0.39247119 -0.75770372
-0.29405603 0.19806239 -0.44323847
0.10693023 0.17246422 -0.54049343
0.21407472 -0.03073323 -0.52396852
-0.41618758 0.23292191 0.06453709
-0.41818464 -0.17080559 -0.45368171
-0.40595195 -0.25601596 -0.53463256
-0.46417704 0.05173278 0.00519975
-0.45874411 -0.20733969 -0.51725221
0.16492733 0.37144318 -0.48164311
-0.12211820 0.30151287 -0.16504292
-0.10859463 -0.37949753 -0.53631127
-0.45308489 0.25199443 -0.57707745
-0.44807455 0.15813550 0.23533872
-0.48337439 -0.23405805 -0.78626543
-0.46870986 0.23287031 -0.13624530
0.20504002 0.37071553 -0.82016009
-0.43810228 -0.26002327 -0.05556539
0.10317430 -0.39068231 -0.37094599
-0.42257699 -0.14408974 -0.23283239
-0.51531559 0.04150589 0.30039755
-0.37304282 0.24900299 -0.54464412
-0.46138930 0.20511125 0.00620099
-0.49960530 0.10964163 0.35809061
-0.48885998 -0.21860038 -0.45060733
-0.43346593 -0.21182363 -0.16007012
-0.49246550 0.20890777 -0.70948899
0.18402131 -0.37123483 -0.51126736
-0.00786749 -0.05386046 -0.54049343
0.04829846 0.13930072 -0.43979383
-0.41738519 0.21633671 0.07949904
-0.21944498 0.31842002 -0.55753642
-0.46588853 -0.05678856 -0.19592233
-0.36519933 0.03137341 -0.44305989
-0.07647558 0.05585036 -0.54049343
0.05665710 0.37335184 -0.52244693
-0.43552911 0.06332798 -0.28015184
0.15700494 -0.07454185 -0.53738326
-0.44269869 -0.08082960 -0.31907466
-0.40976247 -0.09975491 -0.45107615
-0.36402065 0.26331544 -0.53547400
-0.49136084 -0.11992547 0.21997151
0.25357264 0.36353400 -1.09633732
-0.49423653 -0.03818014 0.33261785
-0.45106697 -0.03454114 -0.27006578
0.08118137 0.33923110 -0.19867481
-0.28860697 -0.20458692 -0.54049343
-0.47150940 -0.20394337 -0.56628555
-0.44242620 0.20873043 -0.47273046
-0.46031874 -0.05386469 -0.31928962
-0.45406577 0.24280179 0.17544791
0.04280834 -0.00118543 -0.43528134
-0.48945931 -0.25032386 -0.55877256
-0.44616178 0.25996304 0.13160849
0.22620150 0.34409180 -0.70350510
0.07489491 -0.40161070 -0.52831811
-0.08665530 -0.02237182 -0.54049343
0.09209558 0.33867520 -0.28936502
-0.38923702 0.07708659 -0.44761494
0.19947952 -0.26827577 -0.53981692
0.00129705 -0.38495266 -0.47266591
-0.44370747 -0.19638745 0.19920114
-0.51632679 -0.24096906 -0.97979993
0.00275048 0.31430283 -0.16504292
-0.36683097 0.15308857 -0.54049343
0.09353845 0.35589993 -0.30467305
-0.36493564 0.27564386 -0.16504291
-0.45951217 -0.15622331 -0.30705756
0.01952179 0.03253115 -0.54049343
-0.46079567 0.23345517 0.02235000
-0.08805377 -0.33162621 -0.53723043
-0.42163184 0.15929355 0.11655001
-0.43700060 0.18912169 -0.35745460
-0.44897404 0.20891669 -0.50506723
-0.42659688 -0.16391058 -0.14145917
-0.42455474 -0.24079551 0.05321662
-0.49937418 -0.13264991 0.34627691
0.05225457 0.37626305 -0.56295580
-0.08913805 -0.30970562 -0.44862488
-0.51300603 0.17327540 0.28878453
-0.31182352 0.26986822 -0.49769667
-0.46620029 0.19448476 0.11644922
-0.49485189 -0.08558252 0.23433521
0.21339487 -0.37726960 -0.62025923
-0.15430163 0.09528312 -0.54049343
-0.43382069 0.24839896 -0.17225398
-0.46735561 0.03605571 -0.13719298
0.09445634 0.22183962 -0.44964975
-0.13559990 -0.18644604 -0.54049343
-0.41579100 0.22682889 0.03952493
-0.47515813 0.08989247 0.30178812
-0.26200482 0.23643818 -0.44456574
-0.06729452 0.10800072 -0.54049343
-0.41982430 0.20196292 -0.14757439
-0.47193006 0.22024162 0.16121873
-0.46332699 0.09651788 0.03624590
-0.44880161 -0.28764644 0.13588667
-0.02678109 -0.31137985 -0.44999561
-0.38694024 -0.15324755 -0.44861615
-0.42430431 -0.02991514 -0.13059993
-0.12237097 -0.12242542 -0.54049343
-0.44743407 -0.15582007 0.21507832
-0.44167823 0.27495214 0.09770592
-0.46668538 0.20088974 0.12202735
-0.04994685 -0.31939095 -0.17894594
-0.45944893 -0.00307773 0.25925425
-0.48308423 -0.20714405 0.17828265
-0.43269724 0.29610810 -0.05355782
-0.23721462 -0.25920057 -0.44486880
0.14908342 -0.39151698 -0.39792368
-0.33372605 0.03523295 -0.43837982
-0.03102906 -0.02025070 -0.42821321
-0.46073291 0.05683940 -0.30745694
-0.53832662 0.22410408 -0.92882127
0.05299748 -0.23760553 -0.54049343
-0.30996606 0.08443789 -0.54049343
0.19901490 0.02559442 -0.48564023
0.11622187 0.11136180 -0.44779482
-0.47490063 0.28169924 -0.07384011
-0.46699509 0.05852429 0.28139916
-0.20810688 -0.13648608 -0.43288442
0.16973129 0.37135589 -0.52251369
-0.43051094 -0.04414815 -0.32803023
-0.15136307 -0.36179718 -0.48771352
-0.44720542 0.31595492 0.00153636
-0.42945078 0.18876694 -0.24735948
-0.33277562 -0.19900320 -0.44521096
-0.28673914 -0.31736788 -0.19774939
-0.44969904 -0.23626098 -0.45921695
-0.23648047 0.32175919 -0.51579636
0.00275048 0.31430283 -0.16504292
-0.07412490 0.35898995 -0.51969999
-0.50361413 0.21419163 -0.91343862
-0.06164422 0.24023604 -0.44141451
0.21613108 0.08258831 -0.51010370
-0.44119513 -0.20548613 -0.17462607
-0.50097460 0.20899989 -0.74343508
-0.51097459 0.21401130 -0.90944964
-0.27517447 -0.30648756 -0.49431872
-0.51985043 -0.15930359 0.33077356
-0.44462821 0.25507480 -0.47352961
-0.30744824 0.19880719 -0.54049343
0.02794299 -0.39229274 -0.52204067
0.20780173 0.33636582 -0.89817888
0.04838295 0.01785929 -0.43619990
-0.43136311 -0.24450383 -0.16514686
0.12601867 0.33784896 -0.35520840
-0.40425631 -0.02472847 -0.26189733
-0.49161428 -0.26046830 0.11925749
-0.37759873 0.25610435 -0.56628555
-0.27149114 0.14179903 -0.43768182
-0.43946576 0.27591807 0.02607726
-0.46279767 0.23996024 0.18246934
-0.54858792 -0.23659140 -0.93922657
-0.46964565 -0.24826409 0.00010606
0.20282929 -0.12200291 -0.56628555
0.20937781 0.35470253 -0.53306311
-0.46546420 -0.02521732 0.02724348
-0.49867913 0.20854467 0.29495201
-0.46597987 -0.00447143 -0.18553841
-0.47672614 -0.25278312 -0.47261709
-0.37304282 0.24900299 -0.54464412
0.10422075 -0.28900409 -0.54049343
0.13541122 0.08189304 -0.45047358
-0.46902269 0.18875417 0.27081832
-0.46444973 0.19092460 -0.10428420
-0.46352386 0.16189998 -0.05091745
-0.03522241 0.19938833 -0.43815646
-0.03341727 0.24674007 -0.54049343
-0.51177549 0.00909044 0.37860367
-0.47036278 0.02198933 0.12603128
0.11890066 0.14345339 -0.54049343
-0.46542165 0.20898825 -0.65457338
0.08043630 0.17676836 -0.54049343
-0.44423887 0.13591713 0.22209010
0.09301226 -0.35976914 -0.38007519
-0.31430081 0.28694624 -0.19867480
-0.46773288 -0.09351155 -0.54119837
0.15231045 0.36431858 -0.32563668
-0.42492518 -0.11770190 -0.16090921
-0.20798258 0.33470953 -0.50520605
-0.47373229 0.01512128 0.14878294
-0.46264982 0.10036439 -0.19979626
-0.11388338 0.07854993 -0.42724365
0.20339584 -0.05244726 -0.52128637
-0.47228608 -0.16549735 0.11231495
-0.44965184 -0.14839244 0.22294858
-0.46609673 -0.03685362 -0.28797868
-0.15733853 0.35260925 -0.51997322
-0.48573661 0.26862961 0.18747714
-0.45450461 -0.19765551 -0.43444425
0.19901600 0.00119390 -0.51520616
-0.43979704 0.24504483 -0.44033423
0.07335010 0.01528286 -0.43946838
-0.46533778 0.23160508 0.19767502
-0.47171438 0.21072951 -0.17198804
-0.46542019 0.02996024 -0.49220541
-0.12235937 -0.23892951 -0.43980175
-0.44931751 -0.27248058 0.01141344
-0.46537378 0.03647614 -0.52277339
0.12099797 -0.21021545 -0.45201975
-0.44472864 0.21929683 -0.37638611
-0.42118424 -0.00584153 -0.02964676
-0.43383068 0.24105933 -0.49940932
-0.12037513 -0.35059020 -0.17040230
0.23675309 0.35133669 -0.98925132
0.21273522 -0.37877819 -0.49839079
-0.46974868 -0.20458385 -0.56145787
0.08931001 -0.32320043 -0.45599991
0.10883439 0.17238535 -0.54049343
0.03600742 -0.35597301 -0.19867481
0.16262364 -0.35746413 -0.66869694
0.22564174 0.37034294 -0.84455293
-0.47076333 0.20750594 -0.33046302
-0.35471714 -0.27111009 -0.56125259
0.11211085 0.33093360 -0.45928881
0.16056143 -0.25510946 -0.53733635
0.13861717 -0.38743752 -0.32555684
0.08860160 -0.39041647 -0.31639680
-0.42582950 -0.12180259 -0.14172056
-0.50664663 -0.05810147 0.37250051
-0.38757601 0.25497898 -0.16504291
-0.51135153 -0.05061001 0.28561792
-0.04067565 -0.06403809 -0.42839903
0.05299748 -0.23760553 -0.54049343
-0.41630054 0.06923807 -0.20900102
0.04715337 -0.40139109 -0.52600807
-0.52868807 0.23694044 -1.08125579
-0.39195886 -0.19086187 -0.54049343
0.13052902 -0.15498120 -0.54049343
-0.00267084 -0.32867309 -0.19737029
-0.03807239 -0.05205597 -0.54049343
-0.42440233 -0.06466892 0.10455478
-0.46953890 -0.12692146 -0.07629696
0.03205997 -0.05043656 -0.54049343
-0.51080650 -0.02983162 0.37717083
-0.47065243 -0.14807257 -0.13953145
-0.11077116 0.36110932 -0.49769667
0.06246377 0.19143297 -0.54049343
-0.01385429 0.12032761 -0.54049343
0.08770180 -0.00039017 -0.54049343
0.08191065 -0.31440648 -0.45478997
-0.38472787 0.25163105 -0.50234002
-0.47782862 0.19239780 -0.37997013
-0.44972768 0.24901649 -0.49838930
-0.43451512 0.19404280 -0.23452985
-0.35279962 -0.18060824 -0.54049343
-0.46771607 -0.21851605 -0.37832561
0.15194531 -0.29457533 -0.53841823
-0.24017777 0.31776673 -0.19867480
0.11557493 0.38155100 -0.55892754
-0.43153489 0.08511279 -0.27293673
-0.46441483 0.15802571 -0.07798350
-0.46513987 -0.12352201 -0.21225272
0.00129705 -0.38495266 -0.47266591
-0.46951905 -0.19193140 -0.53533453
-0.46795112 0.00060570 -0.13978304
-0.08459604 -0.06226063 -0.42607197
-0.49104568 -0.25044751 -0.55571598
0.19429359 0.34561181 -0.89902836
-0.49023336 0.11443368 0.23088148
0.02843877 -0.11903155 -0.43639946
-0.33941060 0.25894374 -0.50349671
-0.42194977 -0.11550160 0.03696202
-0.42396429 -0.01915480 -0.10356040
-0.04260013 0.36873689 -0.50810134
0.21968579 0.27848506 -0.53115654
-0.55364341 -0.21813571 -1.00414824
-0.35608897 -0.27060634 -0.50714308
-0.47036916 -0.08655380 0.10781933
-0.46333352 0.17244609 -0.05094645
-0.35346520 0.25438964 -0.54606044
-0.04651127 0.32019508 -0.53755975
-0.47207701 -0.24805564 -0.60331911
0.22801751 -0.35865253 -1.04098606
-0.43591776 -0.25055167 -0.52191371
0.09297940 0.34108612 -0.22147773
-0.46855587 -0.02831043 -0.11706808
-0.44313228 0.22379695 -0.48701507
0.11717387 0.37231100 -0.25747707
-0.47004041 -0.23766404 -0.02572302
-0.44723758 -0.24534814 -0.16563489
-0.32481796 -0.27634954 -0.52066505
-0.51548100 -0.22266988 -0.73024487
-0.10523329 -0.24528109 -0.54049343
-0.45264387 -0.23735593 -0.52280384
0.18417117 -0.38233843 -0.54281437
0.20523092 0.20634474 -0.52112025
-0.40004677 -0.29474074 -0.17880337
-0.47643828 0.16184561 -0.32252833
-0.27269638 -0.04049270 -0.43157169
-0.13740377 0.06988631 -0.54049343
-0.13925537 -0.36499897 -0.48865750
-0.45660168 -0.25332347 -0.49556127
0.20227601 -0.11416337 -0.51003677
-0.44583741 0.25504592 -0.46871167
-0.41977271 0.08481554 -0.03594498
-0.41869500 0.06138612 0.03471281
-0.24136291 0.08261145 -0.54049343
-0.22040984 -0.08959955 -0.54049343
-0.21455353 0.11397566 -0.43235818
-0.43352503 0.16472924 0.18494865
0.18046802 0.37116140 -0.52291816
-0.44584769 -0.29620337 0.08166485
-0.42133278 0.12517199 0.10803435
-0.42052782 0.13224880 0.10176037
-0.46579024 0.01353064 -0.55511081
0.20382033 0.11223660 -0.51290929
-0.42435557 0.05786588 -0.28863698
0.20497881 -0.35823137 -0.97335905
0.02432439 -0.01305260 -0.43316224
0.00726856 0.31390452 -0.19846565
0.14281483 -0.38525525 -0.56389481
0.21177566 -0.15743037 -0.52040988
0.19226427 -0.11864458 -0.52383083
-0.46816757 0.11964753 0.12210332
-0.31836280 0.07077891 -0.54049343
0.21777160 0.33618483 -0.55423516
-0.47960562 -0.19194612 -0.51830500
0.17123187 -0.35761899 -0.73089641
-0.44998839 -0.18795195 -0.41895843
-0.36108530 -0.25669640 -0.52437538
0.16922109 -0.35758135 -0.48321655
-0.48840222 0.08668976 0.22273204
-0.41911373 0.20269866 -0.07417516
-0.46956390 -0.20742255 -0.54083908
0.22257270 0.33609539 -0.65696293
-0.45699412 -0.20860752 -0.23860815
-0.47008941 -0.22335871 -0.51876849
-0.45278174 0.11961934 -0.25360334
-0.14863384 -0.12385014 -0.42959401
-0.30140841 -0.27001905 -0.16639440
0.05925967 0.03354970 -0.54049343
-0.43655872 0.19098099 -0.34527215
0.22130802 -0.36091635 -1.11960995
-0.19374464 0.22230352 -0.54049343
0.08130780 -0.19222389 -0.54049343
0.04859918 -0.31507552 -0.45336035
-0.03580196 0.27031162 -0.44584838
-0.52101225 0.21690288 -0.94385523
-0.44243443 -0.20184278 -0.19388160
-0.43468180 0.15816361 -0.22904128
0.21279010 -0.36463746 -0.48737618
0.11082602 -0.30865750 -0.45641235
0.13479690 -0.34084240 -0.53771609
0.16526863 -0.39181003 -0.61352217
-0.08507273 0.11460038 -0.42973617
-0.41638407 0.26240695 0.03262357
-0.37461349 0.24285504 -0.45707831
-0.35644558 0.23176847 -0.53531891
-0.42991456 -0.00931052 -0.45453390
0.17512259 0.08943878 -0.45801318
-0.33245590 -0.26793224 -0.52680635
0.21998136 0.37044376 -0.54958540
0.20212981 -0.29142717 -0.49769667
-0.50339681 -0.22819652 -0.62671548
-0.43567055 -0.25631884 -0.16504291
-0.47545213 -0.09923708 0.14648244
-0.45346123 0.17057279 -0.52782583
0.17806537 -0.18814212 -0.53504568
-0.46544823 0.20963310 -0.60614735
-0.30466518 -0.20192172 -0.44346032
-0.48946691 -0.20993790 -0.46376160
-0.18253817 -0.03805357 -0.42584774
0.00893162 0.24022353 -0.54049343
-0.44378078 -0.06592009 -0.45782664
0.15352656 -0.35729760 -0.42612633
-0.47684020 0.23626009 -0.14617674
-0.13459229 0.18061605 -0.54049343
-0.29244685 0.11415333 -0.43756282
-0.48100266 -0.31211513 -0.00153724
0.03934302 0.00754776 -0.43501604
-0.09911441 -0.30973741 -0.18474583
0.13902126 0.18321922 -0.45344850
-0.00570257 -0.07911611 -0.54049343
0.22717099 0.33601516 -1.03542745
-0.14175558 -0.36324063 -0.47945544
-0.42365262 0.24022287 -0.56272465
-0.04670366 -0.04787188 -0.54049343
-0.15430163 0.09528312 -0.54049343
0.00335737 -0.04319908 -0.43130803
-0.43138459 0.30008897 -0.07814458
0.00195014 0.06511605 -0.43158701
-0.05891905 0.36419463 -0.48155835
0.20560388 0.31763405 -0.47487083
0.20725241 0.16008505 -0.50800747
-0.38626236 0.12340441 -0.44842011
-0.26986536 0.30263668 -0.52805597
0.19913688 -0.28716069 -0.50334257
-0.46803153 -0.10996664 -0.52096575
-0.47831714 -0.12092418 -0.51156783
-0.14714673 0.20676866 -0.54049343
-0.47059181 -0.09667271 -0.27173781
-0.16297409 -0.06774022 -0.54049343
-0.41672799 0.25531250 0.07015292
-0.43438429 -0.13003398 -0.24842340
-0.42201155 -0.21521714 -0.53866851
-0.44455543 0.04154623 0.21742311
-0.42533731 -0.20104501 -0.04537607
0.03547442 0.06691219 -0.54049343
-0.42089471 0.09693613 -0.16350263
0.13840851 -0.36613292 -0.46461248
-0.14098465 0.08286829 -0.54049343
-0.28375551 -0.25949514 -0.44739249
-0.51377499 -0.19410855 0.26014140
-0.45772696 -0.20700882 -0.53122187
-0.48174304 -0.19401261 -0.25871372
-0.47413284 0.27053142 -0.13100514
-0.45488599 -0.07512041 -0.27597088
0.18716110 0.37103948 -0.48326817
-0.09199108 -0.37405136 -0.55104154
-0.48385614 -0.20587690 -0.78624481
0.15901652 0.35542426 -0.34207514
-0.18020341 0.09544649 -0.54049343
-0.42333981 -0.03468333 -0.16242370
-0.42051896 0.01456090 0.07085619
-0.13119884 -0.05742504 -0.42514601
-0.47576591 0.01970256 -0.52033609
0.21422645 -0.02237217 -0.52759236
-0.15790072 0.08944269 -0.42849487
-0.37875709 -0.13951659 -0.44727272
-0.53778267 0.27447984 -1.11493623
-0.43552896 0.25063735 -0.53258258
-0.43922547 -0.22888416 0.17432758
-0.17139107 -0.03149776 -0.54049343
-0.42399371 -0.01427266 -0.11049671
-0.38576916 -0.26108161 -0.55986363
-0.47855741 -0.24152461 0.14987698
0.13373259 0.29595575 -0.45747626
-0.47136447 -0.07645223 -0.56628555
-0.51268101 0.17767204 0.32039586
-0.18962868 -0.34364310 -0.54105586
0.14608000 0.08747526 -0.53912348
-0.03617798 -0.33399355 -0.45299032
0.03127623 -0.14615433 -0.54049343
0.11475035 0.37132791 -0.47776982
0.04557253 -0.07532272 -0.43662202
0.01015095 0.18735822 -0.43960553
-0.55171531 -0.24287498 -0.97949439
-0.42488497 -0.13783839 -0.06262181
-0.41899747 0.12892361 -0.03656045
0.15247354 -0.01710758 -0.45326263
-0.51588279 -0.01578098 0.29921702
0.04829846 0.13930072 -0.43979383
-0.11881457 -0.02705446 -0.54049343
0.20783341 0.24236260 -0.47207868
-0.47214025 -0.21329173 0.10291629
-0.46956390 -0.20742255 -0.54083908
-0.16582665 0.32563010 -0.19867481
-0.28182831 0.25505173 -0.44805458
0.06083760 -0.06229408 -0.54049343
-0.42017302 -0.26317057 -0.16504291
0.09347086 -0.19830540 -0.44784722
-0.51477146 -0.22544314 -0.72447759
-0.33823386 0.27120876 -0.56367522
0.06336246 0.02830585 -0.54049343
0.17159595 0.35542151 -0.65301496
0.20492917 0.03205340 -0.52871555
-0.43945724 0.23564374 -0.43008727
-0.02591416 0.21346669 -0.54049343
-0.36108530 -0.25669640 -0.52437538
0.04162619 0.34563914 -0.53592390
-0.40733570 0.25545517 -0.16504291
0.20005365 -0.32191229 -0.48551783
-0.44891632 0.10298039 0.23487005
-0.37149218 -0.25198832 -0.53366321
-0.46728632 -0.12894702 -0.19503373
-0.47861227 -0.13719107 -0.55788660
-0.46577546 0.24531835 -0.69098735
-0.08782493 -0.27145556 -0.54049343
0.18833834 -0.36118394 -0.94724733
0.21052676 -0.22625740 -0.50120515
0.20005322 -0.18091503 -0.48147994
-0.11884101 0.27088904 -0.54049343
0.21300527 -0.35838005 -0.92465526
-0.11586788 0.06755433 -0.54049343
-0.46133006 0.23672134 -0.02143965
0.19441694 -0.02005720 -0.47299778
0.10682413 -0.06833968 -0.54049343
-0.51156402 -0.24143511 -0.69691873
0.14277062 0.33542836 -0.19584772
-0.44966888 0.15566413 -0.34839541
-0.05042263 -0.38263112 -0.55098540
0.14110668 -0.00973941 -0.53940499
-0.49664709 0.23568061 -0.92085332
0.19666502 0.24818186 -0.46291426
-0.46348035 0.15529943 -0.04582135
0.22646938 0.36067614 -0.74380761
0.24645527 0.36996517 -1.13050079
-0.04795129 -0.00299728 -0.42683712
-0.52538824 0.03493629 0.33735171
-0.20924349 -0.06441732 -0.42822587
-0.35694644 0.27108356 -0.19867480
-0.42109892 0.05636239 -0.05607978
0.20271379 -0.09003653 -0.51218969
0.04829846 0.13930072 -0.43979383
-0.46472043 -0.20567693 -0.48351234
-0.47653005 -0.20167403 -0.18131007
-0.42006546 0.11219510 -0.05556727
-0.36068583 -0.03177632 -0.54049343
0.06548429 -0.10676501 -0.54049343
0.20124581 -0.30621633 -0.49769667
-0.37302527 0.15090515 -0.54049343
0.08507717 -0.35604987 -0.20980825
-0.46413773 -0.18448623 -0.20196863
-0.03102704 0.26943287 -0.54049343
-0.06121234 0.10916641 -0.54049343
0.21623710 0.08843148 -0.55163264
-0.42245001 -0.03588264 -0.04806761
0.16230617 -0.35752651 -0.37459046
-0.39391571 -0.16367504 -0.54049343
-0.32308528 0.24420479 -0.44976506
0.18467662 -0.39189672 -0.92616874
0.13274905 0.06995784 -0.44972166
-0.43689901 -0.23880401 -0.54457790
0.15581255 0.22059038 -0.53884214
0.16286713 -0.37784392 -0.48780003
0.21299353 -0.09031615 -0.50253409
-0.01737177 0.30999050 -0.17833088
-0.49558291 -0.21341865 -0.54657453
-0.12630270 0.31516805 -0.19867481
-0.51081693 0.21100503 -0.84962100
-0.28665912 0.27454090 -0.19867480
-0.50073034 0.24260248 -0.91489655
-0.11312459 0.33950061 -0.19583629
-0.42026186 0.08716894 -0.30945352
-0.46613678 -0.06089446 0.02209060
-0.24784374 0.04832172 -0.43042102
-0.46958622 0.19561264 0.30589041
0.20105717 -0.18133301 -0.52004343
0.16820733 -0.37455770 -0.78386503
-0.52950102 0.21477121 -0.91482466
-0.46602637 0.01848499 -0.17984550
-0.41901782 0.13436151 0.08186740
0.03254908 0.32634082 -0.16504292
-0.49645606 -0.23746227 -0.83293962
0.12033644 0.32715687 -0.53796440
0.19910116 -0.28912815 -0.55442947
-0.47339565 -0.25252676 -0.45947230
-0.41909915 0.04688678 0.01589634
0.20604499 0.09354595 -0.54140693
0.15478344 -0.16094859 -0.45545378
-0.04354829 -0.33057967 -0.53828543
-0.52281898 -0.15174550 0.32059780
-0.03955280 0.36911541 -0.53860182
0.09375617 -0.40063429 -0.56111854
-0.43659374 0.12989497 0.19450787
-0.42068580 -0.03472608 0.00663345
0.18947278 0.35839275 -0.85902447
-0.34339353 0.03899283 -0.54049343
-0.19188409 0.30358052 -0.16504291
-0.16538076 0.07839829 -0.42801765
0.05471755 0.08714371 -0.43838248
0.21773174 0.33618212 -1.00084615
0.12568149 0.35704684 -0.20192187
0.00668476 0.07280187 -0.43235534
-0.47904870 0.24555793 -0.42610699
0.19176029 -0.14672133 -0.46767506
-0.15493502 -0.30789340 -0.19867481
-0.46356341 0.20610893 -0.46242541
-0.25482401 0.17427336 -0.54049343
-0.46957546 0.24677685 0.16815677
-0.54166573 -0.22924158 -1.07138777
-0.42221382 -0.02366835 -0.04770414
0.14067230 0.30155072 -0.54049343
0.12091337 0.37752223 -0.51045966
-0.43600252 -0.28562438 -0.19806400
-0.43592149 0.20227957 -0.33119991
-0.48075774 -0.27008513 0.06814148
0.06824443 -0.11711226 -0.54049343
-0.44917318 0.07434914 0.23409435
0.00250212 0.13484097 -0.43498760
0.12055315 -0.30614913 -0.45691407
-0.26063949 0.01663698 -0.43026897
-0.10373037 -0.35591653 -0.45891532
-0.40706891 0.02493650 -0.45016021
0.20294152 -0.07748480 -0.52166015
-0.48795140 -0.26487860 -0.05164799
-0.45463443 0.20716256 -0.32961774
-0.41462114 -0.04334612 -0.45149678
-0.44906357 0.19976725 -0.26179311
-0.27575466 0.07129917 -0.54049343
-0.44893238 0.03296432 0.23116401
0.16976556 0.28669447 -0.45980945
-0.47194728 -0.22058569 -0.10744226
-0.28140542 0.16895004 -0.44021028
-0.04895294 0.17590092 -0.43551064
-0.14033538 -0.34660420 -0.18489063
-0.42323291 -0.02575257 -0.07346485
0.21367663 -0.36843994 -0.80291057
-0.26821864 -0.04897474 -0.54049343
-0.03345006 0.28822714 -0.54049343
-0.42496851 0.25065300 -0.56570888
-0.43196338 0.21662973 -0.21680166
0.15832818 0.19674695 -0.45610273
-0.45032957 0.03043460 0.23515818
-0.50470674 0.23920886 -0.96488267
-0.14562614 0.28961793 -0.17041036
-0.27061167 0.27960211 -0.45437464
-0.45959440 0.22011536 -0.22795542
-0.46999630 -0.24509625 0.05508797
-0.40227371 0.03166689 -0.26449609
-0.45476434 0.19460262 -0.26110300
-0.30757916 0.26346719 -0.52691007
-0.47637808 -0.18338911 0.27038559
-0.47960615 -0.19421974 -0.56374550
-0.45520580 0.16476572 -0.25504369
-0.47103304 -0.16937421 -0.13985521
-0.44291458 0.20347841 0.22025016
-0.46596217 0.00405581 -0.55041105
-0.47094998 -0.20021574 0.08995189
-0.42095166 -0.06187541 0.02645756
-0.42243356 -0.11846974 0.05807431
0.21715924 0.13924910 -0.51704186
-0.53457695 0.22852480 -1.03827429
-0.51456964 -0.23705584 -0.84523338
-0.49272436 -0.06459158 0.33619395
-0.46641839 -0.02108266 -0.54620147
-0.43505070 0.18063337 -0.26947963
-0.29833785 -0.28472939 -0.51361430
-0.47434655 0.20797858 -0.24678218
-0.49596226 -0.26184112 0.17107829
-0.45348972 -0.26983431 0.14167237
-0.42221382 -0.02366835 -0.04770414
-0.46388733 0.07142674 0.04044364
-0.46973667 -0.11100399 -0.09420702
-0.34911740 -0.20922577 -0.44750646
-0.46802020 -0.10934421 -0.56563276
-0.46830356 -0.06154555 -0.07448286
-0.15193830 -0.34415653 -0.53362781
-0.46256325 0.26045421 0.08949630
-0.45439884 -0.05083676 -0.46257168
0.20521191 -0.27479610 -0.49988976
-0.46213982 0.19384941 -0.02273420
-0.41840750 0.09043346 0.00738062
0.06480283 0.36835307 -0.17058264
0.19957086 -0.32525834 -0.49769667
-0.18830594 -0.18655942 -0.54049343
-0.13589233 -0.36244494 -0.50864488
-0.48647222 -0.15544483 0.19803891
-0.46053210 0.10433131 -0.47335625
-0.12592687 -0.31026205 -0.16504292
-0.40468332 -0.24974211 -0.17103425
0.16607670 -0.38850591 -0.76291430
0.02813328 0.07307826 -0.43476954
-0.04039155 -0.11414236 -0.54049343
-0.00487248 0.26291364 -0.44611868
-0.45408136 0.24749792 -0.19307263
-0.06468149 -0.15417340 -0.43179563
0.20602091 -0.37309787 -1.04904652
-0.26900235 0.30315849 -0.50403666
-0.14405593 0.31195560 -0.45058134
-0.43659374 0.12989497 0.19450787
-0.07054561 0.02826277 -0.42600253
-0.50841999 -0.09206634 0.27546456
0.15850161 0.33725914 -0.44479713
-0.46572894 -0.24454072 -0.64600492
-0.00667550 0.30805728 -0.53965515
-0.44210699 -0.31054786 0.06792699
-0.46995538 -0.11792791 0.09776784
-0.12458967 -0.00149300 -0.42411104
-0.50674170 0.20928429 -0.77601475
-0.43490022 0.26277402 -0.13392000
-0.42777437 -0.23392020 -0.53422606
0.11413861 -0.39458627 -0.51437891
-0.44402522 -0.15790653 0.20318708
0.10800946 0.28124607 -0.54049343
-0.14391737 0.10060252 -0.42877150
-0.42447272 -0.04097669 -0.13312644
0.16613580 -0.38321856 -0.76247925
0.03613899 -0.39258164 -0.55567491
0.10544754 -0.35642171 -0.39116207
-0.24017777 0.31776673 -0.19867480
-0.43091211 0.08042395 0.16585860
-0.37304446 0.25322884 -0.51263767
0.15985279 0.24423118 -0.45767948
-0.30052900 0.23231950 -0.53739071
0.19873258 -0.02040882 -0.51572561
0.20062707 0.33649680 -0.76894671
-0.19217107 -0.07651791 -0.42817995
-0.46995267 -0.16340512 -0.06734487
-0.49098247 0.06349139 0.35271034
-0.52452868 0.24467592 -0.94173640
-0.46513209 0.08445167 -0.05727152
-0.49592572 0.21289772 -0.89462501
0.06480520 0.20761952 -0.54049343
0.17095231 0.09447914 -0.45709437
-0.43027434 0.23680997 -0.12247917
-0.15457866 -0.36632207 -0.56444198
-0.42519587 -0.11323967 -0.15419038
-0.44917104 0.23435013 -0.39064762
-0.44269484 -0.30307987 -0.01797778
-0.18514428 -0.27365589 -0.44473904
0.12244771 0.37221515 -0.25598633
-0.48791313 -0.20981005 -0.81983262
-0.03809537 -0.09425767 -0.42967498
0.26381457 0.35470632 -1.14087272
-0.47034264 -0.11374965 -0.27591619
-0.43528640 0.20604897 -0.29992840
-0.04055308 0.15133791 -0.43380141
0.19858433 -0.04272883 -0.49758241
-0.31722555 0.13397081 -0.54049343
0.21995480 -0.36074689 -1.11378682
0.12843923 -0.39114067 -0.44994691
-0.52216691 0.12853295 0.32383797
-0.46434531 0.08389157 -0.03130848
0.03266421 0.03259134 -0.43462554
-0.02537356 -0.30380046 -0.44897786
-0.48354512 -0.26288480 -0.14528620
-0.52348220 0.12245630 0.33793131
-0.42361239 -0.04865742 -0.16206147
0.21494783 -0.36214167 -0.85502136
-0.46335989 0.09401685 0.01530494
-0.44111907 0.27334899 0.05902843
-0.46149433 -0.31096509 0.08855800
0.11212604 0.35038057 -0.40133110
-0.42782637 0.20514244 0.16187969
-0.50974983 0.07096062 0.32956025
0.12491101 0.05722259 -0.44811279
-0.14109920 -0.11610091 -0.54049343
0.10169514 -0.39065579 -0.31171772
0.19957086 -0.32525834 -0.49769667
-0.30744824 0.19880719 -0.54049343
-0.51202428 -0.07852956 0.36731055
-0.42089763 0.01987504 -0.30829582
0.22427659 0.37036708 -0.67458987
0.16175887 -0.35744801 -0.58526987
-0.46261418 -0.25677472 0.13478231
-0.50718403 -0.20543498 -0.78467953
0.21405070 -0.03205683 -0.56115276
-0.47502354 -0.20908071 0.22901759
-0.10327367 0.32749018 -0.45325804
-0.46667624 -0.04084937 -0.03410412
-0.24316749 -0.12680456 -0.54049343
0.10633255 0.33820644 -0.24405831
0.08477242 -0.02228419 -0.44126955
0.09155639 0.34540465 -0.27279088
-0.45046487 -0.14767362 0.22571227
-0.51271474 0.22078751 -0.98376817
-0.40422773 -0.25487536 -0.49850237
-0.45998588 0.14388599 -0.21429203
-0.10475551 0.16453077 -0.54049343
-0.49886671 -0.17819341 0.26396504
0.23108654 0.35634586 -0.92104656
0.08772282 0.32668430 -0.19391766
-0.48192298 -0.12817521 0.17963359
-0.02965922 -0.25292158 -0.44267333
-0.46865955 0.00486233 0.28309360
0.16983776 0.10811461 -0.45693800
0.16466677 -0.35749820 -0.39159518
-0.21964984 0.32957494 -0.54278386
0.17325179 -0.35765693 -0.78626049
0.15648237 -0.39106536 -0.56378871
-0.46203434 0.22048219 -0.52227956
0.23350933 -0.38260576 -1.06208825
-0.46628767 -0.03448153 0.05954762
-0.34991011 -0.27287528 -0.54483730
-0.43739820 0.20910259 -0.37745479
0.12694758 -0.21925765 -0.54049343
-0.48587838 -0.20828037 0.22983405
-0.42672873 -0.23155923 -0.53483373
0.10914073 0.37245697 -0.29664546
-0.05938326 -0.17022318 -0.54049343
-0.52980953 0.22066651 -0.87980551
-0.50604057 -0.23865958 -0.76525551
-0.47706085 -0.00428990 0.16661814
-0.21729665 -0.11743575 -0.43214357
-0.50713283 0.24276485 -0.75991940
-0.12313741 0.05718065 -0.42576408
-0.06026577 -0.28947446 -0.54049343
0.20504327 -0.26763403 -0.51018888
-0.49559969 -0.03829015 0.23994091
0.22189854 0.33610883 -1.04299390
-0.46967557 -0.20055476 -0.51883519
-0.14428988 0.33444688 -0.19630469
-0.50768834 -0.03265855 0.27644232
-0.42094809 -0.11712662 -0.25328311
-0.02438987 -0.14569874 -0.43334922
-0.41904408 0.00852571 -0.33168244
0.00315787 -0.39258516 -0.51372617
0.18487272 0.37108201 -0.70521635
-0.38757601 0.25497898 -0.16504291
0.04996797 0.38477924 -0.53256804
-0.36053905 -0.26714480 -0.49411672
-0.51080066 -0.04597722 0.37462214
-0.48300007 0.25066778 -0.60793120
-0.49118912 0.06196084 0.36997476
-0.43975362 0.23276381 0.18790331
-0.45144323 -0.16120341 0.22816446
-0.31466284 -0.02618129 -0.54049343
-0.28150091 -0.00152858 -0.54049343
0.11118583 -0.39082828 -0.26005638
-0.16297409 -0.06774022 -0.54049343
-0.46809572 -0.11350494 -0.56405425
0.04571765 0.09365461 -0.54049343
0.16515516 0.23407407 -0.45789722
-0.46149433 -0.31096509 0.08855800
-0.04713437 -0.32348385 -0.53900141
-0.37877992 -0.20101254 -0.44992056
-0.47344974 0.14737344 -0.53006583
-0.03913871 0.37813887 -0.52255076
-0.50056195 -0.24703838 0.21349689
-0.55554336 0.26538268 -1.08044350
0.02399483 0.01578783 -0.43337092
-0.31029764 -0.11037687 -0.43854508
-0.15650988 -0.15976633 -0.54049343
-0.55735207 -0.21875906 -1.00897741
0.19904725 -0.18049821 -0.47782311
-0.46585658 0.15534337 0.10667251
-0.42566580 0.04359578 0.13187531
-0.08653770 0.17280249 -0.54049343
-0.46544379 0.00907897 -0.02076662
-0.05869654 0.34207031 -0.16504292
-0.06957851 0.13252552 -0.43093833
0.21007971 0.31589854 -0.50302362
0.20087443 0.28436258 -0.46534017
-0.51636142 0.08998221 0.32334796
-0.20834221 -0.07712433 -0.42894140
-0.16295332 -0.25559720 -0.44182912
0.05328194 0.07555674 -0.43770775
-0.47657672 -0.02498951 -0.55390030
-0.47969231 -0.15317260 0.28400752
-0.41829017 0.18394944 -0.04379085
0.09024915 -0.23701599 -0.44989121
-0.47922230 0.25566852 -0.47040835
-0.45192063 0.25140819 0.24436286
-0.42133278 0.12517199 0.10803435
-0.09236151 -0.02177345 -0.42507374
-0.56538600 0.25229806 -1.06739259
-0.46801198 -0.10889015 -0.55991882
-0.33311290 -0.02088225 -0.43791756
-0.47971243 0.16571514 0.19423190
-0.35353076 -0.27154574 -0.55863577
-0.46261773 0.18833779 -0.54100800
-0.41375265 0.14256620 -0.21770592
-0.42094937 -0.05001000 -0.32693496
-0.56230617 -0.24522869 -1.00981212
-0.08929111 -0.28814438 -0.54049343
0.09264958 0.19059397 -0.54049343
-0.12798996 0.30374080 -0.44887784
-0.42546734 0.11445475 -0.30652344
-0.42264232 0.14712250 0.12387774
0.17875940 0.37119183 -0.61864299
0.15649284 0.35378355 -0.53432947
-0.15499339 -0.13261265 -0.54049343
-0.46659321 -0.08774363 -0.29250583
-0.46861038 -0.14186190 -0.50323403
0.14901154 -0.15304430 -0.53843904
-0.45542654 -0.23588149 0.18487236
-0.52954686 -0.10298960 0.34621444
-0.44176322 0.30156764 0.14059225
0.09613620 0.34584698 -0.53609312
-0.46774322 -0.14521837 0.00668701
-0.42183024 -0.10234831 0.01379235
-0.48485625 -0.13797599 0.31595913
-0.07870156 -0.19780035 -0.43529573
-0.42069387 0.02698831 -0.03277329
-0.30566940 0.22083323 -0.44585705
-0.47161227 0.22615206 0.27624843
-0.00544799 0.33782113 -0.53633493
-0.03945021 -0.14994702 -0.43280184
0.11382557 0.36302954 -0.40547362
-0.36658087 0.01490804 -0.44309324
-0.45077726 0.30567893 -0.06309640
-0.43136311 -0.24450383 -0.16514686
-0.46380547 0.12289210 -0.53417915
-0.50597084 0.20268176 0.27804455
0.06549402 -0.00592010 -0.43797317
-0.06084966 -0.38081366 -0.55837590
-0.32481796 -0.27634954 -0.52066505
0.16795547 0.36145121 -0.51159489
0.19871376 -0.06295628 -0.50190073
-0.07055685 0.37307915 -0.50090080
-0.43171328 0.00894000 -0.28874379
-0.47858959 0.11341423 0.18485042
-0.42411163 -0.03688840 -0.32945013
-0.52443355 -0.20768563 -0.87283236
0.18899135 0.10177100 -0.53138930
-0.26331413 0.08680940 -0.54049343
-0.48879868 -0.27313265 0.00404378
-0.30547971 0.27234027 -0.56259269
-0.32717180 0.15591165 -0.44288668
-0.45507309 -0.26877224 0.08128391
0.20604499 0.09354595 -0.54140693
0.20052569 -0.39245337 -0.90394348
-0.08944729 0.34254336 -0.45929381
-0.43659374 0.12989497 0.19450787
-0.26675683 -0.11048698 -0.43481192
0.13220753 0.33773574 -0.34898585
-0.42340294 -0.02151391 -0.29946581
-0.12298051 0.35237646 -0.52073628
-0.32440451 0.19233911 -0.54049343
-0.49106434 -0.12586899 0.21855977
-0.46933356 -0.18171053 -0.50084180
-0.42041796 0.26751611 0.01213573
-0.15374430 0.35363281 -0.56168222
-0.23159428 0.31259304 -0.54525667
0.00410346 -0.37544817 -0.18803330
0.07148118 0.37709057 -0.48639095
-0.54166573 -0.22924158 -1.07138777
-0.23512837 0.31613877 -0.16504291
-0.46939203 0.02890286 0.11818914
0.20671000 0.13019364 -0.53804439
-0.15067160 -0.34454012 -0.18025117
-0.34669614 0.07855174 -0.54049343
0.00933256 0.21794754 -0.54049343
-0.21807286 -0.28967807 -0.16504291
0.22963481 0.36151785 -1.09805751
-0.03107641 -0.11580104 -0.54049343
0.02418883 0.27346992 -0.44884104
-0.42530036 -0.24961846 -0.01824010
0.20026703 -0.22487642 -0.54911149
0.19864926 -0.21382982 -0.47431502
0.20658904 0.12352818 -0.55378205
-0.50872523 0.21835013 -0.96246094
-0.42236155 -0.01445947 -0.05552927
-0.45264387 -0.23735593 -0.52280384
-0.46366286 0.07600693 -0.29192606
0.19634180 -0.39237744 -0.42261866
-0.32856926 0.24764794 -0.53382128
-0.45946023 -0.07803527 -0.27498695
0.06908769 0.25607976 -0.54049343
-0.36908379 -0.21917169 -0.53980690
-0.49786171 0.23273759 0.26520750
0.18393217 0.36608532 -0.53585434
0.21655159 0.10576372 -0.54005378
-0.45988145 0.12633075 -0.21712828
0.10575157 0.37251800 -0.31511199
-0.44398510 -0.29096824 -0.05794213
-0.17735712 -0.34486088 -0.52217031
0.18680131 -0.04922541 -0.52904445
-0.47969231 -0.15317260 0.28400752
-0.33225507 0.23417547 -0.44917667
-0.11502650 -0.33523995 -0.53598076
-0.41095531 0.06421421 -0.23459658
-0.46399909 0.06832101 -0.00575245
-0.47078136 -0.15035716 -0.13469507
-0.16957526 -0.19724150 -0.54049343
-0.23489846 -0.29821920 -0.45040831
0.21610950 0.08140014 -0.51135337
-0.09627046 -0.31029579 -0.16996875
0.22431043 0.37036645 -0.65478361
0.16057390 0.20635544 -0.53815305
-0.52681941 0.25037053 -1.00138915
-0.02540113 0.17463540 -0.54049343
-0.47271565 0.06339820 -0.49779439
-0.31163883 0.23618615 -0.53629559
0.21345520 -0.36485204 -1.08441889
-0.44179121 -0.15894017 -0.30361983
-0.16884264 0.33567390 -0.47638163
